-2088.35536922,508.429217988,118.142830006,0,0,0,1
-636.699019416,-243.094021016,-124.930911568,0,0,0,1
115.147609117,-1046.93876684,151.884849256,0,0,0,1
347.897117947,-1090.51216925,-22.5826734267,0,0,0,1
-85.2299436741,-1134.97650505,-29.5834095537,0,0,0,1
-963.992609408,-479.706973651,65.6638062188,0,0,0,1
-2523.25080128,-760.677331268,24.6302370095,0,0,0,1
-1911.56506156,993.140437479,-11.9793458003,0,0,0,1
396.10294125,-679.472086559,149.7692851,0,0,0,1
1374.94608108,-1628.56093993,-151.335757006,0,0,0,1
101.332075801,-2311.66216102,-22.4663370222,0,0,0,1
-1989.79568691,-2006.32649699,249.148704639,0,0,0,1
-2819.40364157,-1016.16706448,228.629213302,0,0,0,1
-1717.79615917,68.5249827185,81.6202579056,0,0,0,1
-851.049013011,664.021394322,-22.9650720978,0,0,0,1
597.29445067,-332.624558159,33.5734107009,0,0,0,1
30.2466212102,-1560.79752325,-137.039364722,0,0,0,1
-1070.05762535,-1178.38272158,-117.718235757,0,0,0,1
-2556.09059631,-94.5445284257,-111.10959536,0,0,0,1
-1757.11889461,691.796278726,119.329777118,0,0,0,1
-1349.22246258,-234.340856232,19.8640841008,0,0,0,1
606.039695445,-632.708486023,-102.814884762,0,0,0,1
1204.42555649,-1736.04326994,-123.96062618,0,0,0,1
-1027.5842575,-1793.56592809,-163.577606691,0,0,0,1
-2326.39204059,-435.955463105,-66.6608333628,0,0,0,1
-2825.59938377,149.043979031,-45.0415457824,0,0,0,1
-2087.79518448,-4.04734118806,212.035512023,0,0,0,1
-555.161211521,-137.212578022,-8.07519292449,0,0,0,1
-207.035754855,-1255.46863721,-137.244565901,0,0,0,1
-503.814155828,-1668.87873238,176.01031271,0,0,0,1
-726.688643299,-593.663426454,-13.0452465753,0,0,0,1
-1533.3178486,-882.88008393,26.3007842431,0,0,0,1
-941.989036334,488.195207683,71.1802466525,0,0,0,1
-88.0560510479,-806.625817536,389.418285562,0,0,0,1
1234.59129304,-456.434903115,-123.549643778,0,0,0,1
-445.030582514,-2108.45004072,203.927395238,0,0,0,1
-1459.81357557,-1961.81809002,78.6293555028,0,0,0,1
-2129.50075735,-36.2499918206,-173.121102072,0,0,0,1
-1600.43150562,-449.189914713,-77.9471302585,0,0,0,1
22.5420626538,602.514582691,50.3096573048,0,0,0,1
938.859891874,-251.333202018,-63.9310575335,0,0,0,1
522.690822032,-1418.55779771,-56.0107745977,0,0,0,1
-493.458910984,-1536.49253143,177.647669259,0,0,0,1
-1857.72232458,-1174.33282992,-28.119329791,0,0,0,1
-2717.46902348,763.071795017,70.0461165993,0,0,0,1
-714.5157757,-429.593028471,-66.0105797383,0,0,0,1
875.248252835,101.713290503,103.77195189,0,0,0,1
318.23409756,-1662.0133944,-28.6312560717,0,0,0,1
304.366217908,-2288.9994334,335.917779644,0,0,0,1
-2027.71804066,-1694.97843288,205.836157448,0,0,0,1
-1417.36966676,48.7911286211,17.4933934631,0,0,0,1
-764.766136682,492.36884956,10.0962403577,0,0,0,1
-633.566079251,28.5911137963,78.4824906698,0,0,0,1
243.53663242,-1955.32564745,-149.656963481,0,0,0,1
465.667834773,-1274.83713526,-152.309516487,0,0,0,1
-609.183729934,-1334.79067379,285.179931766,0,0,0,1
-1992.94482026,-684.36034534,237.216405486,0,0,0,1
-1654.50145082,739.737780495,-41.8938366375,0,0,0,1
-750.202057878,449.348028212,51.2832666196,0,0,0,1
373.174655582,-575.337394243,84.0627750993,0,0,0,1
-328.963801551,-1130.14494485,15.3770724368,0,0,0,1
-1699.23041216,-1285.82539946,-322.548353369,0,0,0,1
-2284.28932547,-1335.52604722,285.521524907,0,0,0,1
-2632.57333251,-632.756447535,67.1059419536,0,0,0,1
-1518.73545786,-526.424229809,-122.200823686,0,0,0,1
959.203856409,-951.136954116,21.9229471342,0,0,0,1
-270.173347932,-2084.12832906,247.130147947,0,0,0,1
-95.204099073,-2171.17580301,46.1138272193,0,0,0,1
-1783.92277471,-956.555821681,189.068751906,0,0,0,1
-1795.64903935,81.3619921191,-106.960459547,0,0,0,1
-557.040355187,-283.013498503,203.523580917,0,0,0,1
-35.4600142129,-98.806281645,186.745370706,0,0,0,1
1051.09158681,-1869.18049322,-148.283382402,0,0,0,1
100.852761747,-1298.3894035,55.3290294312,0,0,0,1
-1595.13027454,-2048.18543336,-165.895470529,0,0,0,1
-2286.99074608,-219.929458441,-6.57877712412,0,0,0,1
-1334.49076712,629.33333862,171.001192296,0,0,0,1
-725.583407362,292.922522162,-322.205882115,0,0,0,1
1119.66157206,-708.432941913,58.7582976868,0,0,0,1
-413.092250615,-1958.12722847,-229.56756375,0,0,0,1
-1019.35247132,-1671.82654796,-51.8837098499,0,0,0,1
-1336.81566444,-288.039335016,142.702911362,0,0,0,1
-2300.01756706,-280.494231147,56.2617880229,0,0,0,1
-1010.49804368,115.625971798,148.176572058,0,0,0,1
386.972568389,-514.706498793,-100.11574061,0,0,0,1
536.405598242,-2044.79836081,114.905568574,0,0,0,1
-519.481620181,-2480.81216801,112.882272601,0,0,0,1
-1132.18945919,-1195.75281405,-219.035227037,0,0,0,1
-2495.04884526,550.29590279,-85.5393542541,0,0,0,1
-667.157627992,173.069051101,-167.022133574,0,0,0,1
832.005172804,-1181.12962404,-332.440973477,0,0,0,1
154.684988258,-1551.48499987,-107.427017432,0,0,0,1
-133.645231402,-1847.23077357,242.970095459,0,0,0,1
-1697.3064433,-1037.68720174,-191.695025299,0,0,0,1
-2154.01911129,-594.413012778,-327.211376107,0,0,0,1
-1673.68760652,-126.468219738,65.1590898809,0,0,0,1
617.439900364,-254.75702208,23.3951576659,0,0,0,1
774.409674085,-1113.59369142,-193.517797955,0,0,0,1
-438.298485458,-2583.56506209,49.8289491231,0,0,0,1
-2033.62648202,-932.519533785,71.7904423009,0,0,0,1
-2874.19705161,-933.006450851,-75.6910210471,0,0,0,1
-964.916273351,317.789756683,22.2704454682,0,0,0,1
-474.870320054,-428.218855639,150.68696941,0,0,0,1
-214.139791887,-1169.4874897,-139.087163704,0,0,0,1
1005.02237066,-1619.77343082,-49.3321786088,0,0,0,1
-1222.14411071,-1686.82518054,-1.40541757212,0,0,0,1
-1889.56882291,-1335.75008055,-286.261141083,0,0,0,1
-1876.52972106,300.943584017,-100.304259343,0,0,0,1
-1550.62675021,461.508307818,39.4948490744,0,0,0,1
-244.051539464,-275.408320169,-257.559248349,0,0,0,1
1182.02871664,-2349.15967595,-128.916050276,0,0,0,1
-961.592942419,-1022.08429521,-108.364180806,0,0,0,1
-1939.0862286,-413.999543735,-68.2094100342,0,0,0,1
-1358.52099258,276.456630655,146.408319773,0,0,0,1
-1120.86312852,973.842410631,-80.019798482,0,0,0,1
105.791552084,-437.116996251,153.189957039,0,0,0,1
250.709988178,-1529.13692172,22.6913204028,0,0,0,1
-751.178031857,-2308.00546794,-53.4202030188,0,0,0,1
-1771.2612022,-1860.8344975,-252.943502336,0,0,0,1
-2522.3636416,-816.035898667,-79.2476159484,0,0,0,1
-2250.87566916,858.859865266,-30.1474806754,0,0,0,1
387.163882461,487.097209142,125.657157396,0,0,0,1
1046.84980849,-1823.64248176,-14.4743248443,0,0,0,1
92.1911971022,-1371.42434143,381.873425035,0,0,0,1
-1574.13669764,-1609.89500574,-125.44783198,0,0,0,1
-2031.99820904,-48.2987356383,-178.496346578,0,0,0,1
-1754.74843439,-109.789921071,-16.8990668107,0,0,0,1
-1141.96147741,-251.783284833,27.1997373583,0,0,0,1
902.919644488,-1615.93904096,-192.57541722,0,0,0,1
-96.3003514422,-2115.32835343,-116.536732154,0,0,0,1
-1124.04742298,-1296.33351849,-54.7811259332,0,0,0,1
-1630.16964261,-1345.24742658,379.493930002,0,0,0,1
-2480.12155348,88.3810068367,-6.89898874144,0,0,0,1
-1331.26429988,199.505064871,-131.170839851,0,0,0,1
144.172410023,60.108024062,24.3106516029,0,0,0,1
-50.6152330201,-1031.8112881,30.1960868983,0,0,0,1
-1018.41883524,-2245.28207199,-268.115646488,0,0,0,1
-1520.64436277,-1152.26104106,-110.835990924,0,0,0,1
-2374.676409,-652.820381387,-220.922024875,0,0,0,1
-1473.95974631,-544.599297169,-132.689897751,0,0,0,1
-817.331240844,-331.946030663,-71.062149857,0,0,0,1
179.559736541,-699.686080294,113.145071624,0,0,0,1
691.716394427,-1309.51983949,174.913871738,0,0,0,1
-1846.64756673,-1716.40419336,12.6978847314,0,0,0,1
-2796.58648361,-606.336465402,-198.917715521,0,0,0,1
-2102.74636484,679.083291498,-127.561099287,0,0,0,1
-118.301384838,287.696852445,-108.584422684,0,0,0,1
850.850363949,-513.365254362,-21.8641004436,0,0,0,1
1071.53477304,-2168.27245113,7.50198460389,0,0,0,1
-1557.41603348,-2019.63925828,121.803205643,0,0,0,1
-2694.24320663,-504.365814258,27.777062327,0,0,0,1
-1846.7353133,92.8017723689,231.470353028,0,0,0,1
-78.9799979298,-123.680943056,149.386094305,0,0,0,1
936.932376074,-1202.55473305,-208.514513178,0,0,0,1
1057.06972085,-1609.98755896,8.00214264514,0,0,0,1
-1058.65956223,-1694.39416019,269.377602679,0,0,0,1
-2264.25140397,-979.233402362,-56.5764790482,0,0,0,1
-1629.02160877,743.573429243,177.427992707,0,0,0,1
-584.350110844,716.048216311,156.682520389,0,0,0,1
478.443089388,-590.292738252,78.9766614424,0,0,0,1
514.930425203,-918.304271299,-171.08608425,0,0,0,1
-606.184591987,-1590.8159556,-103.731041017,0,0,0,1
-1272.61214064,-1039.75300504,5.91024495302,0,0,0,1
-2371.71293577,197.242135723,152.715250308,0,0,0,1
-1231.44848683,576.728120343,-29.0602761014,0,0,0,1
-322.405115247,-4.38891174344,-46.571932781,0,0,0,1
1111.67491287,-1660.39517399,141.500937491,0,0,0,1
898.276623856,-2191.87033952,-144.636300692,0,0,0,1
-982.538595468,-1310.63963693,-138.684310465,0,0,0,1
-2495.26763388,-580.284827808,178.507118554,0,0,0,1
-1787.039871,234.42674312,-11.6275058842,0,0,0,1
-1287.39746173,489.63505088,-230.661554533,0,0,0,1
-272.117739023,-1674.31066899,157.467258346,0,0,0,1
473.897512753,-1335.75971548,143.266089462,0,0,0,1
-431.665706289,-1334.84874754,11.5108894084,0,0,0,1
-2108.57730651,-1542.55804381,-33.2308759311,0,0,0,1
-1727.69643475,-615.951280135,24.5580320924,0,0,0,1
-645.172056248,553.558420728,2.55293107295,0,0,0,1
118.18693033,59.2081389943,-83.1349154916,0,0,0,1
756.588477746,-2065.91641214,137.183518941,0,0,0,1
-454.330398233,-2139.8841608,395.108166753,0,0,0,1
-2221.60777671,-915.242250257,186.786449078,0,0,0,1
-2766.7388093,-592.656422273,-120.852726513,0,0,0,1
-1475.1791275,-375.724104834,-279.764064267,0,0,0,1
-150.283293933,92.4439451334,-147.556286538,0,0,0,1
156.82006474,-744.539702779,197.183797092,0,0,0,1
-447.308328377,-2579.74733524,2.95291562534,0,0,0,1
-1373.93297909,-911.482449852,-308.226809298,0,0,0,1
-1501.84977417,-994.775708788,-160.133798499,0,0,0,1
-1960.3354409,431.41113042,-292.38114058,0,0,0,1
71.064657788,-85.5015980048,-109.539031364,0,0,0,1
-22.2198442509,-1755.81159736,76.4514493213,0,0,0,1
-89.9925543491,-1865.1264118,-212.546732169,0,0,0,1
-1640.68383363,-1636.49831556,3.11264143563,0,0,0,1
-2109.51848184,-1337.63021008,-90.3132251663,0,0,0,1
-2543.00415598,274.689846386,-144.16126875,0,0,0,1
-273.262198115,-395.335217944,-48.9250388296,0,0,0,1
208.032902323,-862.64736929,103.457702739,0,0,0,1
1021.23231404,-1855.50405246,-62.5969598923,0,0,0,1
-943.052973656,-2125.68210042,113.052628156,0,0,0,1
-1169.94469758,-1306.39506012,196.580575043,0,0,0,1
-1596.44975956,438.802497214,12.8667546848,0,0,0,1
-647.750714979,-414.670850439,103.155107288,0,0,0,1
-627.745636554,-742.487815568,-172.169024493,0,0,0,1
418.834827284,-2214.57526982,268.809710448,0,0,0,1
-121.082157439,-1471.4261977,117.789336359,0,0,0,1
-1720.95342224,-1680.397908,-119.061919456,0,0,0,1
-2800.3239758,-780.276099176,-51.4601293621,0,0,0,1
-1504.86042983,331.574330445,-81.6379225967,0,0,0,1
549.722962389,350.12659456,-12.5072232519,0,0,0,1
300.914637337,-1300.35580975,-104.731347298,0,0,0,1
386.623475612,-2466.71126142,-267.595278398,0,0,0,1
-1243.17818936,-1974.50026484,38.9099131063,0,0,0,1
-2750.42790896,239.644154799,-45.1131164857,0,0,0,1
-1694.30468741,87.090569744,-106.209568327,0,0,0,1
81.1692080345,761.300354607,197.804616622,0,0,0,1
80.5869350431,-1098.3103814,-12.4024649067,0,0,0,1
704.019320844,-1681.85457291,-17.2296877961,0,0,0,1
-895.346827161,-1502.03066978,-10.8230788289,0,0,0,1
-1762.64281894,-1108.71639603,-11.6052208758,0,0,0,1
-1931.21259447,-71.9480773373,-64.2648394232,0,0,0,1
-868.13626671,101.351262079,247.320176619,0,0,0,1
570.344066171,-52.6044204414,172.273617706,0,0,0,1
679.192011393,-1994.11318484,-53.6939326073,0,0,0,1
-962.011308023,-1630.958852,-83.9502496032,0,0,0,1
-2081.10032415,-1656.52511163,243.145790815,0,0,0,1
-2771.48296972,-188.467391364,7.61227648496,0,0,0,1
-1890.76494025,65.6995402028,127.23413359,0,0,0,1
161.594620162,-374.280504156,-40.4445686388,0,0,0,1
47.5406213381,-1897.06485907,-279.138769398,0,0,0,1
667.496162882,-1979.44533601,282.404887672,0,0,0,1
-1217.16469649,-789.21776244,16.2808769731,0,0,0,1
-2522.64250787,31.543917913,-370.562907013,0,0,0,1
-928.779244012,-398.062854732,-93.748809182,0,0,0,1
-329.671245801,-310.540228557,-81.2059484651,0,0,0,1
364.23128509,-1081.75593538,134.675413926,0,0,0,1
-271.781096395,-1598.77380614,-110.828115024,0,0,0,1
-389.935879376,-773.423476164,72.3754920917,0,0,0,1
-1274.04051544,-753.339192663,190.582297085,0,0,0,1
-1239.87924542,238.287322045,291.884925153,0,0,0,1
-1072.04859655,-466.737708404,12.7439790137,0,0,0,1
168.787414664,-1256.93548853,-19.8138314177,0,0,0,1
349.080115605,-1663.81820637,64.3514948144,0,0,0,1
125.627431645,-1193.27434979,58.2589236871,0,0,0,1
-1263.7045316,-711.408629682,-147.277696854,0,0,0,1
-2325.52202317,537.205113107,-56.1073789406,0,0,0,1
-518.428267953,485.277435318,-310.255292272,0,0,0,1
-280.017170399,-890.273917142,-111.977299765,0,0,0,1
846.218904321,-1385.2804267,107.744755764,0,0,0,1
560.004169728,-2108.50770423,17.4262381334,0,0,0,1
-2025.36178859,-929.031787455,-127.664540323,0,0,0,1
-2632.89596637,227.988664543,-28.1419276658,0,0,0,1
-834.438554481,815.549586951,-7.87437166803,0,0,0,1
55.6229079996,111.069329805,23.8882780587,0,0,0,1
615.840904304,-1860.4695236,-10.7087765638,0,0,0,1
-485.257976785,-1386.53968482,10.6641917574,0,0,0,1
-849.396517152,-1027.51426929,-2.20281617255,0,0,0,1
-1933.81038148,-780.89284114,-185.628044442,0,0,0,1
-2350.60962106,914.026584948,-92.7125388074,0,0,0,1
-1138.6794732,-236.490251577,147.230366394,0,0,0,1
270.00246953,-1312.91440063,-211.280579517,0,0,0,1
471.469031271,-1064.82401054,-106.474588148,0,0,0,1
-1109.88557918,-1382.76205227,97.9876137762,0,0,0,1
-2709.25846781,-458.17044161,174.829895852,0,0,0,1
-2236.56859822,-32.5539670223,69.0801964149,0,0,0,1
-1770.23068016,111.25738314,61.3359925294,0,0,0,1
28.5727077721,37.1914692682,293.69320945,0,0,0,1
-150.353602084,-1270.06829828,208.503216016,0,0,0,1
-621.551345551,-1999.18914262,-18.9370789345,0,0,0,1
-2178.69658337,-73.9280267154,3.74701559461,0,0,0,1
-1868.7931112,-227.093240408,153.585243287,0,0,0,1
31.3165849631,270.049337161,-5.99620138613,0,0,0,1
499.050171667,-2032.39953783,-317.242997378,0,0,0,1
161.466739007,-1360.90606374,-138.631624589,0,0,0,1
-1972.53117444,-836.980942546,-15.9105778096,0,0,0,1
-3300.49525839,281.540083291,-206.77719978,0,0,0,1
-1066.86975061,-396.485967555,149.242177878,0,0,0,1
-775.503280458,-380.288508357,-121.134531928,0,0,0,1
109.190134875,-1229.26668008,-16.1789235655,0,0,0,1
-69.7744427224,-2127.96159865,-140.158591643,0,0,0,1
-1909.22178955,-1089.67280248,-110.141311698,0,0,0,1
-2789.13141753,-513.059184555,242.50154222,0,0,0,1
-1596.23617725,-423.820172398,-17.8972270169,0,0,0,1
-1423.75858213,-192.395437321,144.040943229,0,0,0,1
-73.4803853217,-1251.76075905,8.88361906552,0,0,0,1
1066.20109834,-1696.4599791,-51.7371274482,0,0,0,1
-325.679956553,-2430.06129565,-107.329283969,0,0,0,1
-2525.44772756,-894.109196249,131.366328268,0,0,0,1
-3042.87280019,162.490441525,201.025104533,0,0,0,1
-579.464118351,-135.370746338,-77.8852931866,0,0,0,1
666.185681379,-207.89195287,-91.5633800207,0,0,0,1
751.053563785,-1862.69948008,124.194642638,0,0,0,1
433.122235447,-1228.92991154,47.2481409874,0,0,0,1
-1690.21185524,-441.983073104,-82.636060669,0,0,0,1
-2644.67748414,-710.724779819,-36.469735378,0,0,0,1
-952.344762909,947.523402426,-156.316572209,0,0,0,1
207.519376497,194.368245858,27.9788913093,0,0,0,1
1415.46367641,-742.961582005,-173.784632843,0,0,0,1
571.185775314,-1514.17871233,-28.3233169873,0,0,0,1
-1686.13053098,-1239.65642051,-157.12700441,0,0,0,1
-2703.61504553,-869.628640028,-124.055325808,0,0,0,1
-2729.94888438,592.577713358,-122.481803861,0,0,0,1
-859.027364084,188.55726144,-39.6046646695,0,0,0,1
1391.91623788,-418.923936567,99.0537496531,0,0,0,1
1022.31692507,-1928.54619735,74.4240907659,0,0,0,1
-742.070499293,-2428.14346658,13.6422125091,0,0,0,1
-1669.20936425,-184.386767948,20.7832499653,0,0,0,1
-2616.9898157,972.896487257,-51.0599797361,0,0,0,1
-1489.42170935,293.049475656,363.489052301,0,0,0,1
509.223541046,-1373.98854434,13.8504201229,0,0,0,1
1369.895153,-2305.7716856,-109.688156504,0,0,0,1
-892.605712304,-2513.21314342,139.080201175,0,0,0,1
-1410.77938276,-664.085983478,-121.260740759,0,0,0,1
-2156.63432306,50.2671302264,-25.1236645234,0,0,0,1
-1756.5661301,21.4059346061,202.676641776,0,0,0,1
15.2304089508,-998.527019667,-58.9730991192,0,0,0,1
1540.53106262,-744.03250755,-89.0808613062,0,0,0,1
91.5495154476,-2660.2898355,46.4058928995,0,0,0,1
-2338.73802926,-1464.36220277,75.6597982744,0,0,0,1
-1883.01264806,236.885632596,77.3833213127,0,0,0,1
-1523.45815582,493.227640957,-20.1413838204,0,0,0,1
-197.481136629,-99.5308850111,-9.46924248729,0,0,0,1
1346.04296792,-1491.60169649,-5.06339952615,0,0,0,1
212.130820401,-1142.91088916,-273.524206651,0,0,0,1
-1254.90975688,-1530.61917094,-71.4463643886,0,0,0,1
-2331.31903365,-1311.75279129,-99.5864010084,0,0,0,1
-1568.86430413,-371.526986959,-190.551396328,0,0,0,1
-71.2042016341,-334.145451373,136.188034032,0,0,0,1
423.369622541,-506.055428827,-194.153996757,0,0,0,1
1446.03176546,-1408.17275938,-27.8357629804,0,0,0,1
-80.2631146547,-1535.56927652,-16.7882071773,0,0,0,1
-1421.87601495,-1484.19528121,284.280201541,0,0,0,1
-2223.34367692,-139.150068914,-124.046958508,0,0,0,1
-1068.32198014,590.093774581,-101.534083825,0,0,0,1
1173.58092138,-649.201222105,-23.4278872229,0,0,0,1
1638.93447569,-1693.48905787,-192.910205838,0,0,0,1
377.017728311,-2220.8842493,88.2300658027,0,0,0,1
-1252.07001761,-426.94013003,86.1140087752,0,0,0,1
-2816.49516125,-130.267588641,-226.787535192,0,0,0,1
-1322.32839958,99.8564668532,-283.901340011,0,0,0,1
596.828092075,247.024244437,-543.998446843,0,0,0,1
1113.93009413,-1448.21887276,139.053971378,0,0,0,1
725.83099365,-1886.33353201,-68.2768888026,0,0,0,1
-1470.20591784,-1209.03907354,156.260935939,0,0,0,1
-2492.25414642,-1039.02799524,11.2347235191,0,0,0,1
-2455.36547119,38.3658648016,267.858088161,0,0,0,1
357.77653453,679.76024166,-203.783282012,0,0,0,1
1140.07680966,-619.449215053,56.7534353275,0,0,0,1
962.724308462,-1435.88967733,62.0885539431,0,0,0,1
-1395.85482438,-1849.53797484,-180.735380866,0,0,0,1
-3046.8306081,-42.401028764,-39.7165686128,0,0,0,1
-1562.969093,-454.457915463,42.1364574097,0,0,0,1
-762.673839225,-45.6392309631,-5.87007052937,0,0,0,1
855.821548186,-311.464022367,60.2669826223,0,0,0,1
896.247409498,-1720.5606713,64.9974377377,0,0,0,1
-1199.56194376,-2376.36728773,-102.997581015,0,0,0,1
-2527.50400947,-1344.70356755,-265.286947779,0,0,0,1
-2759.19858267,-478.783441993,-133.393428154,0,0,0,1
-1940.58545549,1003.33327382,-188.38707375,0,0,0,1
-437.503756749,-375.43615906,-94.8701764006,0,0,0,1
487.241020979,-756.483771027,60.5974611776,0,0,0,1
350.431359075,-1618.4709797,206.55598454,0,0,0,1
-1322.60780538,-1486.33508146,156.789976991,0,0,0,1
-2628.3695798,25.2582968012,187.484590596,0,0,0,1
-1765.05197589,-177.875805173,-193.093543294,0,0,0,1
572.264395224,-307.143578074,101.083626892,0,0,0,1
1649.40166786,-1518.62234923,-5.73071396431,0,0,0,1
127.27242238,-2257.61732582,-115.829533906,0,0,0,1
-1914.23178124,-1772.53148463,103.215148728,0,0,0,1
-1677.75381557,-862.801914581,378.355138036,0,0,0,1
-2391.55700997,-382.61765842,185.580752059,0,0,0,1
119.048285844,206.934515592,120.263940284,0,0,0,1
1179.02681078,-266.303655345,-163.5930659,0,0,0,1
1378.80694026,-1286.18434997,39.9647801443,0,0,0,1
-1153.70076665,-1861.75405317,-5.00344700572,0,0,0,1
-2227.61046733,-1215.59607519,-219.586948434,0,0,0,1
-2946.60561773,514.189780159,-31.0530294002,0,0,0,1
-1611.94961232,964.552695357,-116.733726276,0,0,0,1
81.7667105313,-1171.15750188,218.555730331,0,0,0,1
214.163523621,-1539.58636068,114.085155867,0,0,0,1
-443.671527351,-1754.18049151,-27.2044907003,0,0,0,1
-1850.37545461,-1139.15720259,255.969988611,0,0,0,1
-2783.43303577,-265.901509758,-78.9415413236,0,0,0,1
-2295.25592657,-331.520105443,-109.698767275,0,0,0,1
-468.154022298,-510.680100962,-99.1571857952,0,0,0,1
518.823832764,-703.400714544,64.9990901065,0,0,0,1
343.71879715,-1191.89426116,151.301537917,0,0,0,1
-2149.54454945,-1108.37321876,37.9852162539,0,0,0,1
-2706.32772927,-1050.67899427,12.5353776895,0,0,0,1
-2009.20708229,-279.244957907,-131.162373999,0,0,0,1
-1101.98222782,-526.252834034,15.5783107061,0,0,0,1
991.303633106,-1173.15762515,-13.697815728,0,0,0,1
787.012813342,-1880.50556807,23.5805107507,0,0,0,1
-1732.994323,-1709.53201207,-310.716363995,0,0,0,1
-2461.15183,-337.107926267,300.367606541,0,0,0,1
-2847.64998915,474.590040298,117.240467635,0,0,0,1
-1228.38468542,957.648495426,181.960351296,0,0,0,1
446.526921805,32.8862066289,107.425546804,0,0,0,1
1459.65125901,-1749.69499555,-79.6513692987,0,0,0,1
-106.204305331,-1087.94492006,-37.9540437835,0,0,0,1
-2490.135989,-1266.6671283,244.289882986,0,0,0,1
-2899.40440462,31.7323852204,79.1561697606,0,0,0,1
-493.016375005,582.3852827,306.692895711,0,0,0,1
416.792303551,-659.894951755,42.6642005249,0,0,0,1
1538.2735081,-1954.95902035,111.004668963,0,0,0,1
-114.462669295,-1701.67646796,23.1671063763,0,0,0,1
-2181.36669713,-711.926698461,222.273432586,0,0,0,1
-2527.09272281,-619.278338918,12.535350903,0,0,0,1
-1404.39570486,-255.751334731,-130.645395888,0,0,0,1
355.890228468,-765.675858154,-13.8405433054,0,0,0,1
776.042744792,-1889.9451924,-370.076411504,0,0,0,1
692.734780538,-1166.39570029,-46.8172028802,0,0,0,1
-1954.73029488,-1163.73478363,289.445845895,0,0,0,1
-2806.05208365,-1233.87509276,309.369162836,0,0,0,1
-2077.42671893,50.1513637096,-125.717063848,0,0,0,1
-820.186341098,75.2784247949,114.251491216,0,0,0,1
1184.04149146,-1012.65880465,-13.3438655025,0,0,0,1
527.745275987,-1991.26326665,-458.396945255,0,0,0,1
-1573.87138147,-1369.00666472,102.142553569,0,0,0,1
-2055.12589142,-1581.00521294,-172.67162054,0,0,0,1
-1580.31690712,356.176875403,-287.200438594,0,0,0,1
-978.201967023,1038.16215087,274.990916645,0,0,0,1
-187.53157495,19.5501031463,17.7343441929,0,0,0,1
1011.09159279,-1184.88982449,-66.6718084071,0,0,0,1
-339.852571692,-1397.92667662,109.586814277,0,0,0,1
-2504.40391682,-1825.20337492,19.8482799317,0,0,0,1
-1890.6327886,-177.705738554,-106.117459731,0,0,0,1
-2262.52057352,856.180000832,-155.675183513,0,0,0,1
839.709910911,-353.490877259,14.9418302746,0,0,0,1
1629.95943115,-879.076105323,-71.599494419,0,0,0,1
-611.73585316,-2132.62968706,-16.7056825298,0,0,0,1
-2120.0574853,-1499.27868039,52.9629459813,0,0,0,1
-3282.94835729,-807.208693164,-58.1233887465,0,0,0,1
-1667.71360589,-265.220766076,286.257359717,0,0,0,1
44.4411614864,-14.143413397,-136.492641554,0,0,0,1
1580.35189614,-640.483219735,-52.7034311199,0,0,0,1
1276.97320184,-1156.03112447,123.016681176,0,0,0,1
-1504.36025358,-2140.12982099,178.982492185,0,0,0,1
-3005.36289476,23.0468157697,155.9034859,0,0,0,1
-1508.57528716,725.843033561,21.7293747542,0,0,0,1
-584.808207605,369.02846588,-77.339633431,0,0,0,1
764.429543968,-826.139754989,52.4657924961,0,0,0,1
1273.56280481,-962.893648044,-108.480850842,0,0,0,1
-370.335303475,-1650.891269,-165.941293177,0,0,0,1
-2658.45019413,-1618.71851724,142.866570619,0,0,0,1
-1983.83119022,366.636609486,180.887034121,0,0,0,1
-841.291551849,27.9570721755,-72.9538104244,0,0,0,1
604.187538441,-463.998380019,-52.3321485237,0,0,0,1
218.755905426,-1268.48610772,-324.628907075,0,0,0,1
321.561649841,-2541.43989156,166.41070893,0,0,0,1
-2487.63065512,-1803.26160037,-129.042324309,0,0,0,1
-2673.56461468,185.065920866,216.806682359,0,0,0,1
-2090.38734419,516.585680351,218.750830663,0,0,0,1
-77.497472738,-157.143711413,-89.4059267294,0,0,0,1
143.0378692,-1262.51029481,56.367445124,0,0,0,1
523.977461037,-2102.0661656,-88.8335847153,0,0,0,1
-1054.89908211,-1445.14545303,21.6518690713,0,0,0,1
-3236.37904908,-851.487406725,86.7260496505,0,0,0,1
-1572.17329684,-286.798024474,-143.188354502,0,0,0,1
-715.849170721,589.298447758,-223.376016051,0,0,0,1
92.2263806289,-1539.56328499,-111.711434549,0,0,0,1
223.073681137,-1543.18645981,11.8458424587,0,0,0,1
-1067.06821293,-1019.67141806,-84.0587488791,0,0,0,1
-1492.32421071,-822.723414302,14.3021514583,0,0,0,1
-2606.55842124,323.72259967,223.255653536,0,0,0,1
-1477.7830799,570.763633,37.1082406612,0,0,0,1
-269.624077325,-307.193103596,139.894344125,0,0,0,1
470.721663205,-2329.34213481,-101.613992547,0,0,0,1
-139.578847397,-1633.4397093,-76.973862164,0,0,0,1
-2403.86023517,-1378.33414463,180.963529921,0,0,0,1
-1964.95814086,-828.810421939,-183.009981571,0,0,0,1
-1557.30706365,-387.072811607,280.447841358,0,0,0,1
-152.551832085,-486.270337728,163.015330272,0,0,0,1
1294.23905885,-1956.08744833,17.494969961,0,0,0,1
718.759325567,-1204.46237957,-36.717048543,0,0,0,1
-1645.27276972,-2163.51669075,-35.8589786451,0,0,0,1
-2255.91988888,-452.779120797,-80.8806017952,0,0,0,1
-1681.02097545,435.146398423,-39.0517011138,0,0,0,1
-1049.63834209,693.634626096,54.4295149192,0,0,0,1
1342.76053156,-1403.32582134,29.0395079007,0,0,0,1
480.273579271,-1407.27803762,255.280831461,0,0,0,1
-1716.01584278,-2322.38799149,-42.0776372224,0,0,0,1
-2202.62805969,-983.041526863,162.83747761,0,0,0,1
-2305.9894206,-152.275760938,505.32090387,0,0,0,1
-1398.48431986,-9.19984724116,143.141973723,0,0,0,1
437.839685905,-401.312241881,-48.0691413079,0,0,0,1
1489.55603101,-1942.37417043,-90.3936207535,0,0,0,1
-1015.54701498,-2008.06424646,196.493769242,0,0,0,1
-1638.56074593,-983.32014588,62.60468525,0,0,0,1
-2169.32488968,262.253653183,256.64718045,0,0,0,1
-1356.80588634,359.390847405,-22.4221054327,0,0,0,1
228.230400358,-832.01320254,196.08908092,0,0,0,1
377.210700528,-1083.75745899,20.8334905677,0,0,0,1
276.421220587,-2270.44074288,300.184478467,0,0,0,1
-1773.62559894,-779.735629843,-21.2693674559,0,0,0,1
-2049.64091464,-771.821484045,-86.5403971081,0,0,0,1
-1846.23624683,986.043372289,-308.021494387,0,0,0,1
166.100139357,-768.915116861,118.335022673,0,0,0,1
211.067316202,-1055.66859868,273.367311927,0,0,0,1
343.320027143,-1300.81062215,57.9320001218,0,0,0,1
-2086.22021996,-2251.30603095,7.7176056733,0,0,0,1
-2692.22954449,-101.177380177,179.454826873,0,0,0,1
-2228.41238168,652.433555696,-54.6787614036,0,0,0,1
-1190.75561598,451.620574486,-44.4758871668,0,0,0,1
1154.83409907,-897.504711951,-50.6336935347,0,0,0,1
260.12678919,-1893.5046295,-2.8704604736,0,0,0,1
-1346.6134177,-1041.14674891,189.036323374,0,0,0,1
-2236.66696453,-1239.84593807,12.8032377235,0,0,0,1
-2159.11926097,937.920596988,-2.83030553829,0,0,0,1
-757.595989022,942.756159683,35.2641279087,0,0,0,1
47.60261986,-1419.11854271,-36.8001528287,0,0,0,1
973.758977531,-926.000237491,63.2863188912,0,0,0,1
399.370023978,-2157.67114041,28.5929373162,0,0,0,1
-1449.01733318,-1566.271515,-68.7177976356,0,0,0,1
-3086.9866441,459.807361722,-165.503645439,0,0,0,1
-1846.54124456,-282.789423716,-180.565217431,0,0,0,1
187.54285703,65.4414963391,4.84875800961,0,0,0,1
674.059869592,-981.216333371,-146.468573853,0,0,0,1
-653.187121537,-1688.34442852,27.4759346747,0,0,0,1
-1917.85100724,-1277.65804836,69.6273136684,0,0,0,1
-3049.14925428,71.8071971943,144.68912246,0,0,0,1
-1269.1365561,-78.4091316005,-259.90260958,0,0,0,1
-596.762402513,-788.551374339,-106.493736765,0,0,0,1
938.920087863,-1511.1808667,-49.4942221559,0,0,0,1
49.4393323577,-1663.65569322,-151.005620626,0,0,0,1
-582.936283706,-1629.79799307,-94.3408509859,0,0,0,1
-2334.62626496,-1305.3543945,68.0959319073,0,0,0,1
-2728.67905043,696.18815601,-155.186940614,0,0,0,1
-553.932525432,-497.113942344,-227.128962434,0,0,0,1
1105.85154177,-596.480987241,1.97355700794,0,0,0,1
-9.09503534706,-1965.13446189,178.432852522,0,0,0,1
-450.736600667,-1358.31129579,91.3429252749,0,0,0,1
-2297.11272434,-1168.18779878,-163.352054482,0,0,0,1
-2148.55073246,-320.016811153,7.04701516565,0,0,0,1
-1485.20069543,356.687117421,69.5372795186,0,0,0,1
676.591842348,-769.170389947,205.942707281,0,0,0,1
611.398400999,-2123.36722593,95.396461938,0,0,0,1
-947.62356576,-1682.03106953,-72.9031375995,0,0,0,1
-1914.35109197,-830.923930243,117.057196439,0,0,0,1
-1856.81561698,599.878379014,64.3820914482,0,0,0,1
-1818.56690302,891.429490181,-34.7001817057,0,0,0,1
389.386765225,-3.99047965455,-43.6899982801,0,0,0,1
468.237910236,-1407.23675182,118.525069146,0,0,0,1
-233.449654413,-1557.78373923,-32.5494691749,0,0,0,1
-1656.13066999,-1022.65955387,-269.793211058,0,0,0,1
-2757.94272484,-1179.46876793,150.654885253,0,0,0,1
-1304.02644457,445.481090234,42.4973375809,0,0,0,1
-1069.99795908,350.330835089,48.0295203452,0,0,0,1
1205.47371036,-498.934634706,186.938634521,0,0,0,1
236.958551667,-1917.9082462,142.614412146,0,0,0,1
-1002.06225401,-2335.89197966,71.8019676223,0,0,0,1
-2669.19139188,-1490.36906849,-197.034784959,0,0,0,1
-2615.41230814,60.7631635179,-34.2808129126,0,0,0,1
-1080.37033875,-118.843116093,65.4075666604,0,0,0,1
4.43680821301,-710.107206474,-73.7752253512,0,0,0,1
321.231837495,-2066.10095278,93.7012695814,0,0,0,1
-1056.24965122,-1111.50537574,-340.985643142,0,0,0,1
-1714.73122058,-1748.5918856,66.3295975321,0,0,0,1
-3008.90072658,488.489242242,146.204512287,0,0,0,1
-1721.2583416,1110.14428718,-97.1438033614,0,0,0,1
-401.072692462,-777.601620531,-47.360808631,0,0,0,1
900.294055277,-1274.7008431,147.001762291,0,0,0,1
594.263736738,-1392.47178212,115.170813496,0,0,0,1
-1786.50710376,-945.740266436,-98.0040273923,0,0,0,1
-2990.98915356,467.396330171,-419.896284628,0,0,0,1
-1039.70909818,-454.52980187,-117.680882542,0,0,0,1
-839.835911814,-429.001940352,-146.48628151,0,0,0,1
217.490111798,-1392.80625562,-181.547854251,0,0,0,1
735.379542285,-1703.72925231,-20.6180882332,0,0,0,1
-943.705395155,-1098.34215249,-127.920910535,0,0,0,1
-1796.40749142,-1392.96181874,148.752653942,0,0,0,1
-1603.07209814,-411.94333619,181.19357779,0,0,0,1
-469.02318385,597.943500403,-110.013434352,0,0,0,1
514.555857197,-1151.37626503,-5.25571518164,0,0,0,1
773.718967705,-2144.43247713,-127.231666731,0,0,0,1
-262.515633223,-1937.3914257,-161.965407644,0,0,0,1
-2617.36168233,-1129.67499211,-168.757258078,0,0,0,1
-2342.96049758,591.826637477,-61.653829174,0,0,0,1
-577.702715355,-16.7199211935,113.957394734,0,0,0,1
952.842532904,-1186.2620703,-96.8846977963,0,0,0,1
1562.29548764,-908.889438263,196.963363371,0,0,0,1
-364.65434164,-1531.19656107,-86.5995093286,0,0,0,1
-1458.80955527,-1380.26853026,68.440751739,0,0,0,1
-3121.25634803,347.131197708,-79.3907481548,0,0,0,1
-2149.93042163,203.589429112,114.762476368,0,0,0,1
213.277580981,-799.486037539,-269.392849982,0,0,0,1
1038.68310516,-1254.7231237,-212.950779184,0,0,0,1
319.875185535,-1511.39946685,-45.4627245287,0,0,0,1
-1697.57919492,-1470.67065954,-127.608520108,0,0,0,1
-2445.53183922,157.802130324,136.105600886,0,0,0,1
-1258.92612769,952.639037697,32.9653347298,0,0,0,1
-1207.9562832,-596.141542648,25.4727181897,0,0,0,1
46.6005380306,-409.457849309,-347.286646274,0,0,0,1
581.121595127,-2179.94604979,-37.5053974988,0,0,0,1
-1194.38327914,-1595.93711409,6.09600866647,0,0,0,1
-2672.21104334,-681.637715495,-12.2588314001,0,0,0,1
-3001.45207088,356.190865903,-98.0378099147,0,0,0,1
-750.759330894,586.552314917,-177.876346736,0,0,0,1
64.6722824629,-679.271963041,103.386790892,0,0,0,1
1357.19600211,-1160.67527143,-69.635175737,0,0,0,1
-871.397499193,-1457.78557024,279.17655327,0,0,0,1
-2036.12674984,-502.378079993,166.158103855,0,0,0,1
-2231.11504484,-283.202213053,13.3506160488,0,0,0,1
-1237.57282974,1096.19024992,114.159331279,0,0,0,1
170.819245802,-661.72729607,217.689469604,0,0,0,1
999.830085614,-2209.98148728,-102.366413289,0,0,0,1
-355.50322149,-1653.7026997,-221.20829832,0,0,0,1
-2127.8840253,-1017.467787,-245.822305848,0,0,0,1
-2810.20156216,-386.86136429,-97.3043613468,0,0,0,1
-1767.92185062,-9.18528694939,23.9485658193,0,0,0,1
518.08902632,-47.0167247201,269.587161655,0,0,0,1
399.564090751,-1356.0184854,15.8249471071,0,0,0,1
-64.2949128163,-2330.28606334,113.081862563,0,0,0,1
-489.349328804,-2415.3792565,-59.1243057556,0,0,0,1
-3113.48570287,-1149.73330168,-169.706387422,0,0,0,1
-1778.06964599,-445.473485542,-63.8701979786,0,0,0,1
-175.401530266,303.935846014,-138.068384549,0,0,0,1
1106.58273376,-632.292503494,87.9832216337,0,0,0,1
1454.22570333,-2122.79525929,-105.908563223,0,0,0,1
-603.677200724,-2234.18107951,-49.5309464197,0,0,0,1
-1884.17648652,-921.045117783,110.17793605,0,0,0,1
-1932.2572383,-208.309305869,-80.4836037819,0,0,0,1
-1850.39290652,-453.973119992,-119.423627997,0,0,0,1
769.545890647,-1184.47020738,50.8981504942,0,0,0,1
120.639538221,-1597.89033605,309.22328269,0,0,0,1
-145.776366282,-1828.04376896,0.489921386176,0,0,0,1
-1564.14113199,-1520.01336493,17.1027540339,0,0,0,1
-2643.52270793,-153.619207237,9.50337660531,0,0,0,1
-1646.33761146,1020.96314283,-142.901825703,0,0,0,1
-87.1549568996,-521.184717853,5.05301597915,0,0,0,1
670.174070223,-1347.01623611,76.5507701336,0,0,0,1
373.676334112,-1966.11579124,-212.714417046,0,0,0,1
-2200.19741285,-1912.07097049,-32.5078975395,0,0,0,1
-2826.43150431,97.3967192141,-173.715012825,0,0,0,1
-2571.64496045,140.908923827,-88.6630341339,0,0,0,1
291.904175744,633.649138083,-222.786606283,0,0,0,1
377.157762793,-1439.01925318,-171.173091191,0,0,0,1
182.208821265,-2555.85857088,10.5805038368,0,0,0,1
-1216.79345347,-2136.8687686,6.26614763516,0,0,0,1
-2770.10695594,-975.404651784,34.7121146608,0,0,0,1
-1882.99778825,-399.264198171,-59.7011191125,0,0,0,1
-620.006700316,-406.588772515,-153.811117418,0,0,0,1
1041.87508127,-473.37202274,-80.4822827043,0,0,0,1
993.029487891,-1610.78287447,-155.651509998,0,0,0,1
-1227.68493506,-1375.72742412,182.452655675,0,0,0,1
-2308.43646184,-459.920948128,-152.791855204,0,0,0,1
-1969.17710222,-278.023722996,-59.1075565461,0,0,0,1
-950.435857689,166.148823701,72.554851808,0,0,0,1
-20.5137420312,-427.342873073,-79.0918988292,0,0,0,1
167.56272141,-1550.89700505,-62.3333881232,0,0,0,1
6.20178032722,-1428.16032696,-217.107087258,0,0,0,1
-1258.42261049,-2051.80700403,-26.500526548,0,0,0,1
-2652.43557395,-1050.37020244,199.141601262,0,0,0,1
-2007.02591718,529.159500567,33.3244641884,0,0,0,1
-4.75572485566,-377.756474687,136.972021597,0,0,0,1
756.755880137,-531.66878512,37.9251700509,0,0,0,1
187.670482206,-2589.15797021,159.349289305,0,0,0,1
-1107.67706544,-1921.70085609,246.940096749,0,0,0,1
-2394.1565525,-352.329800138,121.580720974,0,0,0,1
-2845.03578726,886.553567131,62.0176799757,0,0,0,1
-109.516143992,-391.010847212,68.5254099954,0,0,0,1
101.930729611,-702.753017749,-306.175625754,0,0,0,1
-2419.04570559,-492.851706175,-202.36673853,0,0,0,1
-1145.43814153,1197.61132764,-106.471950127,0,0,0,1
1094.40519312,-159.152400648,-68.0196796485,0,0,0,1
1626.29969289,-1196.13053757,283.102923248,0,0,0,1
-473.696257577,-2698.25864921,-121.438528979,0,0,0,1
-2419.85173172,-1864.39118286,-135.112292476,0,0,0,1
-2227.66870439,141.40980232,-10.6097521688,0,0,0,1
-2658.84839933,-172.555368475,95.5304883001,0,0,0,1
-203.554184568,-125.198956037,236.6710819,0,0,0,1
982.813067403,-1573.98851279,-172.943688358,0,0,0,1
930.107003253,-2350.64989718,89.2607589405,0,0,0,1
-1726.02348104,-1369.23965242,-3.42326160021,0,0,0,1
-2614.04097059,-881.905443072,-56.0388115647,0,0,0,1
-2455.83082565,1036.00720326,136.922991284,0,0,0,1
-602.421193748,952.7343452,-109.898138126,0,0,0,1
1694.70277384,-198.89972151,-105.559364059,0,0,0,1
1385.67240789,-1757.40924256,-108.238269165,0,0,0,1
-649.868409594,-1867.42123441,213.790146732,0,0,0,1
-1786.46604461,-1854.65684237,304.159721199,0,0,0,1
-2953.55936492,251.10479862,-87.3616584506,0,0,0,1
-2009.83342309,907.130396396,-75.7561871596,0,0,0,1
248.294215764,-15.5663947736,173.47642884,0,0,0,1
920.698703814,-2235.64859429,3.02854746401,0,0,0,1
-724.57817131,-1675.5190463,-26.9542632479,0,0,0,1
-2139.53658736,-1570.06662809,49.4637982003,0,0,0,1
-3424.01445822,-848.908213518,-227.079195277,0,0,0,1
-2063.50896638,574.27947745,-143.109087899,0,0,0,1
-373.310292654,-24.7261391471,-216.515780935,0,0,0,1
1937.97342116,-2006.28155958,404.655601296,0,0,0,1
699.099144104,-2712.8946906,-137.626229943,0,0,0,1
-1489.3260934,-1290.21607145,263.760314149,0,0,0,1
-2101.69638783,-381.308350905,-365.329313644,0,0,0,1
-1577.56045648,250.879389296,-33.0504582038,0,0,0,1
-128.446166755,-557.236693905,154.766529189,0,0,0,1
1388.88065435,-1585.92322104,-103.699833291,0,0,0,1
459.01346849,-2031.30008217,185.073745922,0,0,0,1
-1053.02099672,-2284.34652589,-5.27113298264,0,0,0,1
-3090.2685551,-1597.16966629,161.712989486,0,0,0,1
-1998.00833294,-345.393425127,79.1306505136,0,0,0,1
-392.816000713,-143.704022057,-94.2310869354,0,0,0,1
206.611246337,-1223.2480391,118.56546034,0,0,0,1
877.210687188,-2142.14800223,115.220265957,0,0,0,1
-84.2154446792,-2371.42555004,-133.968457276,0,0,0,1
-2793.88291784,-717.737586228,259.333074715,0,0,0,1
-2478.97219258,-842.869343151,-152.506948487,0,0,0,1
-1546.34982658,935.398064585,-322.977658955,0,0,0,1
-341.073014413,-317.426344943,10.3556857474,0,0,0,1
583.886808841,-1848.26212161,157.921612009,0,0,0,1
-457.385423073,-2679.57440288,-20.8128316604,0,0,0,1
-1218.59581135,-789.173923879,-72.4729546563,0,0,0,1
-3086.39131808,-259.44854776,-100.343106835,0,0,0,1
-2831.06935746,-47.4238180523,19.7714555391,0,0,0,1
-84.7273019248,232.980503021,-26.4929420837,0,0,0,1
1829.58353695,-1727.91763268,-0.757975851495,0,0,0,1
505.085287859,-1825.70620417,80.6530546994,0,0,0,1
-1177.18570915,-1212.21919456,54.4239872937,0,0,0,1
-2951.00222514,-221.150252286,24.8606403273,0,0,0,1
-2284.00671119,621.765263817,70.5104774979,0,0,0,1
-533.03240458,669.213437254,-32.4796139903,0,0,0,1
492.792531331,-1316.23119978,-64.678342113,0,0,0,1
318.752284445,-2375.86453934,-121.988193597,0,0,0,1
-1322.75114607,-1339.59091638,2.23220424971,0,0,0,1
-2564.69159978,-378.86756275,17.5523644416,0,0,0,1
-2587.71488946,-110.960374001,102.655996423,0,0,0,1
-1394.45916216,144.948514443,0.625016770281,0,0,0,1
17.2388502465,0.994223873004,95.7114084421,0,0,0,1
1955.92662738,-1166.21373423,27.9825483712,0,0,0,1
-718.201958498,-1383.49299344,234.384391402,0,0,0,1
-1717.67049246,-1124.46618884,-9.65617201299,0,0,0,1
-3387.90526509,-746.855532907,291.604201384,0,0,0,1
-1667.36738728,504.789992449,15.4336980938,0,0,0,1
152.169952248,-742.36330719,-0.0677120223592,0,0,0,1
1291.82065102,-1464.68343163,-106.150439179,0,0,0,1
650.004142317,-1552.15406368,-73.919602995,0,0,0,1
-1949.60329459,-877.426425673,-136.484765842,0,0,0,1
-2876.24897305,246.763545651,-324.468546115,0,0,0,1
-2927.35140632,948.833111881,82.226929868,0,0,0,1
-1105.22119616,-307.689863908,-43.1390767933,0,0,0,1
1259.0060545,-1660.59196986,-36.1581666313,0,0,0,1
945.282558624,-1902.71227149,111.500994664,0,0,0,1
-282.85835584,-1378.6218484,0.051893060237,0,0,0,1
-2112.61624911,-1535.81494546,-296.453701291,0,0,0,1
-2062.5901745,-274.625964018,19.1165112197,0,0,0,1
-1102.93992982,-363.285046693,-231.283198669,0,0,0,1
737.260804572,-120.956648967,-114.112998634,0,0,0,1
467.571505331,-1726.46247847,-95.3911827091,0,0,0,1
7.6502423746,-1709.67302441,-39.0186567863,0,0,0,1
-1481.46574474,-669.957233449,85.6650479246,0,0,0,1
-3270.9034469,123.451005889,129.963048951,0,0,0,1
-2184.13272067,-349.723928539,-312.907775714,0,0,0,1
-203.664756537,-54.4505538766,129.683769703,0,0,0,1
1833.67576457,-1493.90118528,68.6332016876,0,0,0,1
909.482507702,-2013.36995309,-276.903285346,0,0,0,1
-2358.01481403,-1940.84933063,252.502883536,0,0,0,1
-2279.76898797,-716.732303718,-83.9680470645,0,0,0,1
-2473.03589107,635.24963201,-174.743992238,0,0,0,1
167.745907607,-155.842052773,191.588811725,0,0,0,1
1498.72575512,-1180.58662912,-26.7172438027,0,0,0,1
1428.29701643,-1655.35748881,217.684666356,0,0,0,1
-1897.05051885,-1345.20515565,-151.346764005,0,0,0,1
-3373.84536864,-1139.46001267,-201.268302361,0,0,0,1
-3085.61046217,774.13525076,116.252537248,0,0,0,1
-878.032929828,916.625269633,187.282653924,0,0,0,1
746.15544476,20.1525589298,2.7962633792,0,0,0,1
1009.8452081,-1529.36058631,161.496002251,0,0,0,1
-755.552548721,-1797.58465388,73.2859138442,0,0,0,1
-1984.12245342,-373.506188191,-38.2033462825,0,0,0,1
-3014.93873794,-561.96332804,182.704287572,0,0,0,1
-1137.69538554,-292.09712902,76.67870676,0,0,0,1
391.416377058,-841.741895603,93.4639820094,0,0,0,1
1911.56828866,-1009.43896139,215.28431362,0,0,0,1
-128.398369761,-1910.61515217,155.614577699,0,0,0,1
-1715.01925821,-1885.52196588,-107.920491067,0,0,0,1
-3578.31460305,-365.951315053,-82.80351001,0,0,0,1
-1151.71781147,806.608938177,-95.6018665881,0,0,0,1
-289.179860103,287.783306953,298.859559284,0,0,0,1
1275.15805859,-723.508992749,179.422481866,0,0,0,1
1111.68985364,-1779.39726319,68.9383812991,0,0,0,1
-986.923798309,-2377.08008054,38.1765955608,0,0,0,1
-2445.92091795,-737.369495966,-125.199816204,0,0,0,1
-1557.21040034,919.620242619,-58.4245821017,0,0,0,1
-330.554702453,660.071245286,-182.820520429,0,0,0,1
1517.31221651,-1285.63465261,-68.2243745764,0,0,0,1
169.34136482,-1969.21187715,-135.347575276,0,0,0,1
-1356.39723556,-1664.46255446,-81.207574311,0,0,0,1
-2554.55837966,-1082.07275777,180.342619969,0,0,0,1
-1889.05487922,691.248073683,157.083394942,0,0,0,1
-190.694278968,435.477116126,-201.828563857,0,0,0,1
1367.39512997,-835.459428598,113.994197797,0,0,0,1
1284.68823704,-1701.17206843,-83.6228484038,0,0,0,1
143.108307034,-2546.05655146,357.595505308,0,0,0,1
-1619.542429,-1153.11538627,-166.554558615,0,0,0,1
-3438.6929191,-303.440219514,-69.8291080842,0,0,0,1
-1957.79654115,699.462024805,53.8511739054,0,0,0,1
24.5239169155,-102.487276242,-129.30735254,0,0,0,1
1941.42141827,-1355.31512808,20.4404175706,0,0,0,1
684.909040714,-2420.67782402,-129.483691467,0,0,0,1
-1423.07523006,-947.971769877,255.637749996,0,0,0,1
-2619.20341912,-829.884538369,-43.0055232279,0,0,0,1
-2345.29388011,49.0672554586,-240.722927795,0,0,0,1
501.758115006,228.882266262,-215.889881422,0,0,0,1
1673.23266803,-1406.82826513,-27.3260554933,0,0,0,1
487.427849549,-2059.60955375,80.95314125,0,0,0,1
-1139.17976654,-976.540690081,-244.355501414,0,0,0,1
-2335.01163438,-260.892987629,86.4808630632,0,0,0,1
-1990.27515539,-419.252050528,-221.236739988,0,0,0,1
-847.75068563,832.311982626,116.180774735,0,0,0,1
599.093386393,-764.881757215,266.316437887,0,0,0,1
1655.40749992,-1141.9319449,149.688414201,0,0,0,1
-427.552353772,-1692.36326199,152.476393313,0,0,0,1
-3018.22942269,-852.542840973,72.2915593873,0,0,0,1
-2337.00932895,-247.454205752,68.9472733014,0,0,0,1
-439.993509541,878.100174857,31.1768065092,0,0,0,1
163.736619992,229.910444982,-66.110804208,0,0,0,1
744.52765723,-876.908491391,236.291647872,0,0,0,1
109.661409862,-1725.89254773,-42.8206112727,0,0,0,1
-2708.58626916,-1423.67041572,-89.203751403,0,0,0,1
-2674.68124509,567.229808836,-161.951535541,0,0,0,1
-2123.20047186,1177.35538123,121.99579349,0,0,0,1
-188.538251351,315.812290642,108.473005173,0,0,0,1
1532.58322333,-793.363765869,113.847267803,0,0,0,1
69.4231791613,-2760.20118709,-60.1939806299,0,0,0,1
-896.727295177,-1368.14393006,175.923768185,0,0,0,1
-2778.47364955,-1048.95357071,3.78141174082,0,0,0,1
-2324.93415848,808.090800683,-204.934629448,0,0,0,1
-564.219339003,953.991252588,109.381376762,0,0,0,1
404.894921452,-817.702415475,84.2468692902,0,0,0,1
871.282104737,-1814.18211482,110.91031621,0,0,0,1
-783.276224839,-1709.54403664,-80.8474137215,0,0,0,1
-2681.85204875,-239.639295823,-144.187701092,0,0,0,1
-2356.9436311,373.433564333,-171.086687392,0,0,0,1
-249.581029903,923.4281422,298.9816232,0,0,0,1
1348.75619283,-1063.63114225,26.9205747076,0,0,0,1
928.216511192,-2142.68951911,255.46284598,0,0,0,1
208.072916857,-1872.03953393,67.7308715493,0,0,0,1
-2789.01113941,-1781.38343666,67.6069680414,0,0,0,1
-2969.43966997,362.991838371,-7.70200247729,0,0,0,1
-2017.65402588,759.524287448,54.0539018779,0,0,0,1
889.768479604,290.378139433,171.28866899,0,0,0,1
1630.02709418,-1172.23468709,-64.4734156036,0,0,0,1
-426.705788121,-2535.93660418,-47.6987187683,0,0,0,1
-2634.60598205,-1175.05699642,148.232312621,0,0,0,1
-3384.59926697,-717.691738745,-87.8956180006,0,0,0,1
-2642.75449226,-211.056676252,-49.1295751851,0,0,0,1
525.27134995,-228.551040336,-106.101938806,0,0,0,1
1635.48207918,-1929.17879105,-5.62593444151,0,0,0,1
122.276129162,-1995.55348152,-34.7764966226,0,0,0,1
-1263.21876233,-2480.01251464,58.1297993986,0,0,0,1
-2460.39411971,12.9720875219,173.078795279,0,0,0,1
-1815.58674839,435.463838241,-40.9736412602,0,0,0,1
-417.420496402,-77.0462690794,65.817672893,0,0,0,1
368.787711204,-167.750378932,-66.5349257664,0,0,0,1
1246.93904407,-2314.65114664,-281.552669882,0,0,0,1
-855.123583165,-1327.7287089,63.365617104,0,0,0,1
-1975.85527813,-1008.55699592,20.6336881941,0,0,0,1
-3432.33058707,176.55116083,-5.82899960219,0,0,0,1
-1302.13494855,589.595157817,-24.7909603649,0,0,0,1
1186.61103977,-108.026930385,-93.0861743048,0,0,0,1
1833.75861434,-1811.33945605,-92.2703988293,0,0,0,1
-332.649342016,-2630.71013443,38.6745189821,0,0,0,1
-2288.78847119,-1888.69761224,-55.6042717165,0,0,0,1
-2783.12976131,-916.868779466,-63.8102003652,0,0,0,1
-2318.5523752,-310.13318261,43.2915561298,0,0,0,1
-286.396806784,-188.622966903,59.7309394149,0,0,0,1
866.624885987,-1815.91021438,55.0569365989,0,0,0,1
294.923024876,-2829.39456587,71.1600811499,0,0,0,1
-2089.91054032,-1631.26676894,-269.387062865,0,0,0,1
-2394.33206183,-1001.56203013,56.9820801371,0,0,0,1
-1575.75759704,755.53031293,150.007061722,0,0,0,1
359.896791897,-374.684150797,-43.2347429167,0,0,0,1
1369.10830313,-937.610366815,-59.1414412825,0,0,0,1
24.4957944234,-2605.58909029,-190.794154566,0,0,0,1
-436.295001205,-1314.49507895,82.6898222068,0,0,0,1
-3313.68768654,-312.360432398,135.721890943,0,0,0,1
-3193.84393283,-299.595493401,231.383771963,0,0,0,1
-264.949076464,-94.6664560758,-17.7007607857,0,0,0,1
383.700703288,-1270.00281589,-33.2127322978,0,0,0,1
442.659465476,-1522.86469799,6.97970491442,0,0,0,1
-443.728659318,-2219.01637121,-59.3636626184,0,0,0,1
-2869.15492281,-947.383410749,-11.3961224456,0,0,0,1
-2094.23602587,649.183095634,44.305142878,0,0,0,1
-2212.38522497,180.54655361,290.810890889,0,0,0,1
658.99725632,353.97692627,72.947087496,0,0,0,1
1751.8455032,-1703.00539745,-88.4982033233,0,0,0,1
-203.303213838,-1712.80867573,-47.6127430533,0,0,0,1
-2437.5760873,-1790.98111429,167.936546294,0,0,0,1
-2799.19315483,-325.3561452,169.496760592,0,0,0,1
-1851.55243632,368.925851371,193.391666697,0,0,0,1
-110.307310752,-199.240903877,-115.167817481,0,0,0,1
1212.41889842,-1647.17342215,132.469276239,0,0,0,1
616.448914601,-1895.9517536,-268.696049094,0,0,0,1
-793.849827073,-2513.67115473,-9.99247444416,0,0,0,1
-2891.66346743,-473.375240968,102.203340213,0,0,0,1
-1722.8276779,631.515066379,-277.491136936,0,0,0,1
-900.178228029,463.855805089,-44.0024323145,0,0,0,1
1273.61103223,-666.320961553,95.5686054,0,0,0,1
611.11181946,-1178.57650352,224.074939762,0,0,0,1
-135.692107915,-1245.43824427,-44.9520687707,0,0,0,1
-2454.36226805,-614.852341536,-142.958011861,0,0,0,1
-2309.26498819,182.465764848,-49.9277411982,0,0,0,1
-456.258501709,853.800391892,31.5882032071,0,0,0,1
1501.37133787,55.6376791625,-80.0014130931,0,0,0,1
624.218749994,-1574.69974805,158.211096562,0,0,0,1
-971.492816689,-2104.73406715,126.309401587,0,0,0,1
-1583.8496787,-881.516985525,-43.1646216551,0,0,0,1
-2238.42962816,-316.071103847,86.8609344292,0,0,0,1
-2279.86924752,118.494723742,-18.7676213415,0,0,0,1
-337.176170499,332.423083559,-125.519767439,0,0,0,1
1979.57093151,-621.392903365,-57.2911886206,0,0,0,1
1108.39762875,-2748.1728675,-84.7320972224,0,0,0,1
-1493.6553747,-2277.7553143,88.4185752439,0,0,0,1
-2168.3625909,-1138.24444408,-125.489985476,0,0,0,1
-1449.41132656,433.379228947,-91.0669644495,0,0,0,1
261.323360804,599.810612024,304.198592524,0,0,0,1
1381.28160644,-1091.08081147,204.639973283,0,0,0,1
-21.0133052719,-2679.39289164,55.8729557972,0,0,0,1
-784.732775057,-2337.38844217,92.2940413178,0,0,0,1
-2000.96972209,-46.6104825109,130.489093866,0,0,0,1
-3268.01410678,411.11222654,155.101357083,0,0,0,1
-1559.29627177,1074.16830998,76.0967719811,0,0,0,1
1601.61864368,-1346.03993686,-116.683450426,0,0,0,1
1460.99638842,-1121.39937888,290.887305616,0,0,0,1
-1188.51759992,-2358.32118389,16.4603144741,0,0,0,1
-1581.73046471,-1358.94279048,-79.4878746769,0,0,0,1
-3420.48506941,-101.715155019,13.5602477235,0,0,0,1
-663.134064759,282.687865229,-123.876399765,0,0,0,1
26.8400086035,-44.8764800011,81.8841099482,0,0,0,1
1419.98043796,-1274.42097393,92.8534644766,0,0,0,1
